22.019,1.3402,15.134
21.954,1.3794,15.089
22.056,1.4291,15.159
22.049,1.4719,15.155
21.997,1.5117,15.119
21.978,1.5535,15.106
22.048,1.6017,15.154
21.923,1.6357,15.068
21.946,1.6805,15.084
21.879,1.7183,15.038
21.868,1.7604,15.031
21.808,1.7983,14.989
21.839,1.8438,15.01
21.785,1.8821,14.974
21.814,1.9274,14.993
21.821,1.9708,14.998
21.869,2.0181,15.031
21.873,2.0614,15.034
21.908,2.1077,15.058
21.824,2.1425,15
21.733,2.1762,14.938
21.815,2.2272,14.994
21.834,2.2721,15.007
21.777,2.309,14.968
21.691,2.3423,14.908
21.741,2.3905,14.943
21.852,2.4456,15.02
21.776,2.4799,14.967
21.691,2.5127,14.909
21.747,2.5619,14.947
21.649,2.5929,14.88
21.711,2.6429,14.922
21.803,2.6969,14.985
21.719,2.7292,14.928
21.578,2.7539,14.831
21.742,2.8175,14.944
21.714,2.8565,14.925
21.651,2.8908,14.881
21.702,2.9402,14.917
21.623,2.9719,14.862
21.588,3.0095,14.838
21.507,3.0404,14.782
21.527,3.0855,14.796
21.692,3.1518,14.91
21.505,3.1667,14.781
21.646,3.2301,14.878
21.502,3.2508,14.779
21.537,3.2984,14.803
21.555,3.3434,14.815
21.443,3.3682,14.738
21.499,3.4192,14.777
21.478,3.4579,14.762
21.442,3.4943,14.738
21.563,3.5564,14.821
21.51,3.5899,14.785
21.508,3.6318,14.783
21.462,3.6661,14.751
21.382,3.6944,14.696
21.353,3.7314,14.677
21.463,3.7928,14.752
21.416,3.8264,14.72
21.382,3.8624,14.697
21.501,3.9261,14.778
21.405,3.9505,14.712
21.308,3.9746,14.646
21.428,4.0389,14.728
21.408,4.0772,14.714
21.352,4.1085,14.676
21.306,4.1415,14.644
21.335,4.1889,14.664
21.312,4.2264,14.648
21.207,4.2471,14.576
21.404,4.3285,14.711
21.257,4.3407,14.611
21.244,4.3796,14.601
21.277,4.4282,14.624
21.288,4.4724,14.632
21.284,4.5133,14.629
21.275,4.5531,14.623
21.301,4.6005,14.64
21.25,4.6313,14.606
21.137,4.6481,14.528
21.155,4.6937,14.54
19.277,4.3148,13.25
14.582,3.2925,10.023
11.832,2.6948,8.1324
9.8358,2.2595,6.7603
8.4219,1.9512,5.7886
7.4232,1.7344,5.1021
6.5828,1.551,4.5245
5.9735,1.4191,4.1057
5.417,1.2976,3.7232
4.9579,1.1973,3.4076
4.5766,1.1142,3.1456
4.2835,1.0513,2.9442
3.9785,0.98426,2.7345
3.7343,0.93117,2.5667
3.5176,0.88405,2.4178
3.3261,0.84245,2.2861
3.1508,0.80424,2.1656
2.9789,0.7662,2.0475
2.8522,0.73921,1.9604
2.736,0.71448,1.8805
2.6087,0.68634,1.793
2.5007,0.66285,1.7188
2.3944,0.63938,1.6457
2.2995,0.61854,1.5805
2.2295,0.6041,1.5324
2.1411,0.58435,1.4716
2.068,0.56846,1.4214
1.9958,0.55253,1.3718
1.9429,0.54169,1.3354
1.8724,0.5257,1.2869
1.8211,0.51489,1.2517
1.7627,0.50184,1.2115
10.226,-2.8777,6.9955
10.303,-2.8791,7.0481
10.346,-2.871,7.0775
10.324,-2.8446,7.0624
10.399,-2.8448,7.1133
10.384,-2.8205,7.1031
10.481,-2.8265,7.17
10.546,-2.8232,7.2138
10.509,-2.7928,7.1887
10.623,-2.8024,7.2667
10.638,-2.7855,7.2768
10.678,-2.7753,7.3046
10.757,-2.7747,7.3584
10.755,-2.7531,7.3569
10.763,-2.7342,7.3627
10.879,-2.7424,7.4419
10.878,-2.721,7.4415
10.996,-2.7289,7.5218
11.007,-2.7102,7.5298
11.011,-2.6896,7.5321
11.094,-2.6881,7.5887
11.108,-2.6698,7.5983
11.228,-2.6767,7.6804
11.269,-2.6646,7.7087
11.294,-2.6483,7.7255
11.379,-2.646,7.7838
11.359,-2.6192,7.77
11.436,-2.6146,7.8228
11.471,-2.6002,7.8468
11.487,-2.5814,7.8579
11.606,-2.5854,7.939
11.602,-2.562,7.9369
11.73,-2.5673,8.0241
11.773,-2.5537,8.0536
11.848,-2.5468,8.1048
11.868,-2.5279,8.1187
11.868,-2.5048,8.1187
11.909,-2.4901,8.1465
11.959,-2.4772,8.1809
12.025,-2.4674,8.226
12.085,-2.4561,8.2671
12.163,-2.448,8.32
12.295,-2.4507,8.4107
12.331,-2.4337,8.4352
12.383,-2.4198,8.4708
12.38,-2.3949,8.4685
12.478,-2.3896,8.5358
12.484,-2.3663,8.5396
12.554,-2.3552,8.588
12.679,-2.3538,8.6733
12.692,-2.3313,8.682
12.807,-2.3274,8.7606
12.88,-2.3155,8.8107
12.853,-2.2855,8.7921
13.026,-2.2908,8.9103
13.082,-2.2751,8.9487
13.149,-2.2612,8.9949
13.166,-2.2383,9.0064
13.184,-2.2157,9.019
13.318,-2.2122,9.1105
13.373,-2.1952,9.1482
13.367,-2.1681,9.144
13.354,-2.1399,9.1353
13.496,-2.1361,9.2318
13.556,-2.1192,9.2729
13.637,-2.1052,9.3286
13.611,-2.0746,9.3109
13.907,-2.0926,9.5133
13.926,-2.0682,9.5264
14.029,-2.0561,9.5966
14.157,-2.0472,9.6842
14.101,-2.0116,9.6462
14.252,-2.0053,9.7495
14.304,-1.9846,9.785
14.386,-1.9679,9.8412
14.436,-1.9465,9.8755
14.521,-1.9296,9.9333
14.598,-1.9113,9.9861
14.793,-1.9079,10.119
14.835,-1.8843,10.148
14.899,-1.8633,10.192
14.969,-1.8429,10.24
15.075,-1.8264,10.312
15.133,-1.8038,10.352
15.303,-1.7943,10.468
15.268,-1.7603,10.444
15.498,-1.7565,10.602
15.458,-1.7218,10.574
15.539,-1.7004,10.629
15.692,-1.6865,10.734
15.87,-1.6747,10.856
15.823,-1.6388,10.824
16.042,-1.6301,10.973
16.035,-1.5981,10.969
16.11,-1.574,11.02
16.341,-1.5647,11.178
16.396,-1.5379,11.216
16.519,-1.5172,11.3
16.59,-1.4913,11.349
16.645,-1.4637,11.386
16.883,-1.4517,11.549
16.872,-1.4177,11.542
16.977,-1.3933,11.613
17.089,-1.3692,11.69
17.271,-1.35,11.815
17.384,-1.3249,11.892
17.47,-1.2973,11.951
17.567,-1.2702,12.017
17.747,-1.2485,12.14
17.827,-1.2192,12.195
17.888,-1.1885,12.237
17.972,-1.159,12.294
18.111,-1.1325,12.389
18.178,-1.1012,12.435
18.574,-1.0889,12.706
18.573,-1.0526,12.705
18.722,-1.0244,12.807
18.802,-0.99203,12.862
19.013,-0.96599,13.006
19.107,-0.93345,13.071
19.301,-0.90519,13.203
19.374,-0.87078,13.253
19.506,-0.83858,13.343
19.711,-0.80886,13.483
19.831,-0.77503,13.565
20.101,-0.7463,13.75
20.128,-0.70799,13.769
20.333,-0.67548,13.909
20.451,-0.63941,13.99
20.785,-0.60924,14.218
20.87,-0.57095,14.276
21.113,-0.53635,14.443
21.181,-0.49668,14.489
21.463,-0.46135,14.682
21.472,-0.41958,14.688
21.731,-0.38219,14.866
21.959,-0.34328,15.021
22.045,-0.30155,15.08
22.355,-0.2621,15.292
22.325,-0.21813,15.272
22.506,-0.17592,15.396
22.436,-0.13153,15.347
22.471,-0.087823,15.372
22.485,-0.043938,15.381
22.31,0,15.262
22.319,0.043615,15.268
22.435,0.087681,15.347
22.351,0.13103,15.29
22.336,0.17459,15.279
22.281,0.2177,15.241
22.351,0.26206,15.289
22.253,0.30439,15.222
22.228,0.3475,15.206
22.225,0.39087,15.203
22.337,0.4365,15.28
22.375,0.48097,15.306
22.183,0.52019,15.175
22.366,0.56817,15.3
22.237,0.60836,15.212
22.267,0.65268,15.232
22.184,0.69361,15.175
22.198,0.73742,15.185
22.138,0.77871,15.144
22.311,0.82836,15.262
22.154,0.86582,15.154
22.154,0.90913,15.155
22.275,0.95762,15.237
22.251,1,15.221
22.11,1.0369,15.125
22.131,1.0812,15.139
22.087,1.1222,15.109
22.131,1.1677,15.139
22.124,1.2105,15.134
22.11,1.253,15.125
22.105,1.2959,15.122
22.011,1.3334,15.057
22.08,1.3807,15.104
22.163,1.4292,15.161
21.988,1.4609,15.042
22,1.5047,15.049
22.103,1.5549,15.12
21.932,1.5858,15.003
22.091,1.6404,15.111
22.028,1.6788,15.069
21.969,1.7172,15.028
21.996,1.7623,15.047
22,1.8056,15.049
22.045,1.8524,15.08
21.927,1.8853,14.999
21.846,1.921,14.944
21.913,1.9697,14.99
21.966,2.0174,15.026
21.922,2.0563,14.996
21.979,2.1046,15.035
21.924,2.1421,14.997
21.907,2.1833,14.986
21.778,2.213,14.898
21.903,2.2685,14.983
21.883,2.3091,14.969
21.921,2.356,14.996
21.904,2.397,14.984
21.752,2.4229,14.88
21.868,2.4785,14.959
21.7,2.5019,14.844
21.768,2.5522,14.891
21.88,2.6081,14.967
21.769,2.6375,14.892
21.743,2.6768,14.874
21.836,2.7309,14.937
21.7,2.7562,14.844
21.784,2.8095,14.901
21.789,2.8528,14.905
21.788,2.8952,14.904
21.645,2.9185,14.807
21.636,2.9595,14.8
21.608,2.998,14.781
21.635,3.044,14.8
21.651,3.0885,14.811
21.686,3.1359,14.835
21.538,3.1566,14.733
21.626,3.2118,14.794
21.541,3.2412,14.735
21.525,3.2809,14.724
21.557,3.3278,14.746
21.523,3.3647,14.723
21.479,3.3998,14.693
21.653,3.4697,14.812
21.649,3.5114,14.81
21.516,3.5318,14.719
21.542,3.5781,14.736
21.486,3.6108,14.698
21.608,3.6735,14.781
21.526,3.7017,14.725
21.457,3.7318,14.678
21.585,3.7962,14.765
21.413,3.8078,14.648
21.506,3.8664,14.712
21.47,3.9019,14.687
21.377,3.9267,14.623
21.403,3.9733,14.641
21.439,4.0219,14.666
21.315,4.0403,14.581
21.302,4.0795,14.572
21.387,4.1374,14.63
21.371,4.1761,14.619
21.288,4.2015,14.562
21.388,4.2631,14.631
21.26,4.2791,14.543
21.362,4.3413,14.613
21.297,4.3699,14.569
21.361,4.4246,14.612
21.338,4.4616,14.597
21.346,4.505,14.602
21.352,4.5479,14.606
21.372,4.5941,14.62
21.312,4.6228,14.579
21.254,4.6517,14.539
21.359,4.7163,14.611
19.351,4.3108,13.237
14.78,3.3215,10.111
11.796,2.6739,8.0693
9.8542,2.253,6.7409
8.4908,1.9579,5.8083
7.4856,1.7407,5.1206
6.6431,1.5578,4.5443
5.9824,1.4145,4.0924
5.4631,1.3024,3.7371
5.0138,1.2051,3.4297
4.6084,1.1167,3.1524
4.2995,1.0502,2.9411
3.9964,0.984,2.7338
3.7461,0.92969,2.5626
3.5356,0.88435,2.4186
3.3292,0.83923,2.2774
3.1746,0.80648,2.1717
2.9943,0.76652,2.0483
2.8553,0.73652,1.9532
2.7349,0.71081,1.8709
2.6098,0.68338,1.7853
2.5186,0.66443,1.7229
2.4113,0.64084,1.6495
2.3098,0.61836,1.58
2.2276,0.60072,1.5238
2.1584,0.58627,1.4765
2.0868,0.5709,1.4275
1.9992,0.55083,1.3676
1.9454,0.53981,1.3308
1.8876,0.52746,1.2912
1.8355,0.51649,1.2556
1.7705,0.50167,1.2111
10.225,-2.8637,6.9615
10.308,-2.867,7.0183
10.39,-2.8695,7.074
10.436,-2.862,7.1055
10.426,-2.839,7.0986
10.477,-2.8323,7.1329
10.538,-2.8283,7.1744
10.558,-2.8132,7.1884
10.615,-2.8077,7.2271
10.623,-2.7893,7.2328
10.674,-2.7818,7.2671
10.764,-2.7843,7.3284
10.766,-2.7639,7.3297
10.838,-2.7613,7.3789
10.854,-2.7442,7.3895
10.944,-2.7457,7.4508
11.009,-2.7408,7.4957
10.953,-2.7054,7.4572
11.084,-2.7163,7.5467
11.132,-2.7065,7.5794
11.138,-2.686,7.5829
11.185,-2.6757,7.615
11.268,-2.6738,7.672
11.321,-2.6643,7.708
11.284,-2.6336,7.6827
11.386,-2.6352,7.7519
11.44,-2.6256,7.789
11.453,-2.6063,7.7979
11.562,-2.6086,7.8721
11.568,-2.5874,7.8761
11.634,-2.5795,7.9209
11.681,-2.5673,7.9531
11.733,-2.5557,7.988
11.798,-2.547,8.0323
11.897,-2.5453,8.1
11.887,-2.52,8.0933
11.911,-2.5019,8.1094
12.014,-2.5002,8.1798
12.05,-2.4843,8.2042
12.171,-2.4856,8.2868
12.169,-2.4614,8.2851
12.292,-2.4624,8.3689
12.323,-2.4446,8.3899
12.297,-2.4155,8.3721
12.411,-2.4138,8.4497
12.413,-2.3901,8.4513
12.54,-2.3902,8.5379
12.568,-2.371,8.5567
12.63,-2.3581,8.5988
12.738,-2.3536,8.6727
12.788,-2.3379,8.7065
12.881,-2.3298,8.7697
12.865,-2.302,8.759
13.01,-2.3027,8.8579
13.067,-2.2873,8.8967
13.129,-2.2726,8.9388
13.096,-2.2414,8.9163
13.213,-2.2357,8.9958
13.27,-2.2195,9.0345
13.34,-2.2053,9.0822
13.481,-2.2024,9.1784
13.424,-2.167,9.1396
13.362,-2.131,9.0975
13.524,-2.1305,9.2076
13.542,-2.1071,9.2201
13.684,-2.1026,9.3169
13.676,-2.0746,9.3109
13.934,-2.0868,9.487
14.054,-2.0773,9.5682
14.147,-2.0635,9.6315
14.194,-2.0428,9.6635
14.221,-2.0191,9.6821
14.293,-2.0015,9.7314
14.38,-1.9858,9.7908
14.407,-1.9614,9.8087
14.573,-1.9557,9.9218
14.58,-1.9282,9.9263
14.736,-1.9202,10.033
14.836,-1.9044,10.101
14.867,-1.8795,10.122
14.957,-1.8618,10.183
15.052,-1.8444,10.248
15.139,-1.8256,10.308
15.239,-1.8079,10.375
15.313,-1.7869,10.426
15.411,-1.7685,10.493
15.508,-1.7494,10.559
15.653,-1.7353,10.657
15.624,-1.7017,10.637
15.778,-1.6878,10.742
15.805,-1.6599,10.76
15.907,-1.6397,10.83
16.049,-1.6231,10.927
16.161,-1.603,11.003
16.272,-1.5824,11.079
16.339,-1.5571,11.124
16.457,-1.5363,11.204
16.576,-1.5152,11.285
16.649,-1.4895,11.335
16.796,-1.47,11.435
16.853,-1.4422,11.474
17.03,-1.4243,11.595
17.124,-1.3988,11.659
17.227,-1.3737,11.729
17.404,-1.354,11.849
17.49,-1.3267,11.908
17.516,-1.2946,11.926
17.742,-1.2768,12.08
17.874,-1.2514,12.169
17.865,-1.2161,12.163
17.933,-1.1858,12.209
17.991,-1.1547,12.249
18.051,-1.1235,12.29
18.424,-1.1109,12.544
18.621,-1.0865,12.678
18.662,-1.0526,12.706
18.923,-1.0305,12.884
19.055,-1.0006,12.973
19.155,-0.96861,13.041
19.331,-0.93993,13.161
19.319,-0.90177,13.153
19.521,-0.87323,13.291
19.624,-0.83966,13.361
19.901,-0.81281,13.549
20.046,-0.77974,13.648
20.085,-0.74222,13.675
20.251,-0.70895,13.787
20.444,-0.67596,13.919
20.704,-0.64427,14.096
20.876,-0.60902,14.213
21.05,-0.57316,14.332
21.042,-0.53201,14.326
21.395,-0.49934,14.567
21.385,-0.45751,14.56
21.548,-0.41908,14.67
21.728,-0.38034,14.793
21.982,-0.34202,14.966
22.224,-0.30257,15.131
22.488,-0.26242,15.31
22.466,-0.21847,15.295
22.474,-0.17484,15.301
22.532,-0.13147,15.341
22.541,-0.087679,15.346
22.513,-0.043785,15.327
22.539,0,15.345
22.458,0.043679,15.29
22.442,0.087296,15.279
22.457,0.13103,15.29
22.405,0.1743,15.254
22.387,0.2177,15.242
22.346,0.26077,15.214
22.501,0.30634,15.32
22.335,0.34752,15.207
22.338,0.39101,15.209
22.282,0.43336,15.17
22.455,0.48041,15.288
22.387,0.52249,15.242
22.364,0.56544,15.226
22.373,0.60919,15.232
22.337,0.65164,15.208
22.227,0.69166,15.133
22.327,0.73822,15.201
22.24,0.77857,15.142
22.213,0.82084,15.123
22.228,0.86464,15.134
22.222,0.90762,15.13
22.133,0.94704,15.069
22.166,0.99155,15.091
22.256,1.0389,15.153
22.29,1.0838,15.176
22.238,1.1245,15.14
22.118,1.1615,15.059
22.242,1.2112,15.143
22.237,1.2542,15.14
22.08,1.2883,15.033
22.114,1.3333,15.056
22.124,1.3769,15.063
22.018,1.4132,14.991
22.018,1.456,14.991
22.176,1.5095,15.098
22.033,1.5427,15.001
22.092,1.5898,15.041
22.145,1.6366,15.077
22.098,1.6762,15.045
21.993,1.711,14.974
22.02,1.7559,14.992
22.117,1.8066,15.058
22.111,1.8492,15.054
22.024,1.8847,14.994
22.075,1.932,15.029
21.947,1.9635,14.942
21.976,2.0089,14.962
21.894,2.044,14.907
22.039,2.1004,15.005
21.833,2.1232,14.865
21.923,2.1746,14.926
21.945,2.2194,14.941
21.931,2.2606,14.931
21.849,2.2947,14.876
21.937,2.3466,14.935
21.854,2.3802,14.879
21.902,2.428,14.911
21.866,2.4666,14.887
21.898,2.5128,14.909
21.731,2.5358,14.795
21.848,2.5921,14.875
21.772,2.6254,14.823
21.838,2.6758,14.868
21.803,2.7139,14.844
21.76,2.7509,14.815
21.822,2.8012,14.857
21.805,2.8414,14.846
21.809,2.8843,14.848
21.672,2.9084,14.755
21.662,2.9492,14.749
21.801,3.0104,14.843
21.661,3.0333,14.748
21.72,3.0838,14.788
21.773,3.1336,14.824
21.586,3.1487,14.696
21.761,3.2165,14.815
21.687,3.2477,14.765
21.559,3.2706,14.678
21.739,3.3401,14.8
21.639,3.3669,14.733
21.574,3.3987,14.688
21.691,3.4593,14.768
21.623,3.4906,14.722
21.546,3.52,14.669
21.622,3.5745,14.721
21.511,3.598,14.646
21.493,3.6368,14.633
21.502,3.68,14.639
21.569,3.7335,14.685
21.439,3.7527,14.596
21.423,3.7916,14.586
21.477,3.8429,14.622
21.505,3.8897,14.641
21.539,3.9378,14.665
21.565,3.9845,14.682
21.53,4.0199,14.659
21.541,4.0638,14.666
21.438,4.0861,14.596
21.55,4.1494,14.672
21.402,4.1625,14.571
21.428,4.2093,14.589
21.382,4.2418,14.558
21.37,4.281,14.55
21.48,4.3449,14.625
21.321,4.3542,14.516
21.338,4.399,14.528
21.304,4.4336,14.505
21.431,4.5017,14.591
21.328,4.5214,14.521
21.262,4.5488,14.476
21.264,4.5906,14.477
21.236,4.6259,14.458
21.28,4.6768,14.488
19.47,4.3168,13.256
14.757,3.3006,10.047
11.935,2.6926,8.1255
9.9774,2.2704,6.793
8.5825,1.9697,5.8433
7.5148,1.7393,5.1163
6.683,1.5597,4.5501
6.0157,1.4157,4.0957
5.4525,1.2938,3.7123
5.013,1.1992,3.413
4.6313,1.1169,3.1531
4.3065,1.047,2.932
4.0175,0.98453,2.7353
3.7887,0.93582,2.5795
3.5373,0.88061,2.4083
3.3468,0.83969,2.2786
3.1677,0.80092,2.1567
3.0268,0.77117,2.0607
2.8883,0.74151,1.9665
2.7386,0.70841,1.8646
2.6278,0.68486,1.7891
2.5284,0.66387,1.7214
2.4105,0.63759,1.6411
2.3354,0.62227,1.59
2.2378,0.60061,1.5236
2.1539,0.58229,1.4665
2.0814,0.56674,1.4171
2.0194,0.55379,1.3749
1.9607,0.5415,1.3349
1.8907,0.52585,1.2873
1.8337,0.51355,1.2484
1.7896,0.50468,1.2184
10.322,-2.8772,6.9944
10.352,-2.8656,7.0149
10.444,-2.8707,7.077
10.467,-2.857,7.0931
10.49,-2.8428,7.1081
10.507,-2.8271,7.1199
10.528,-2.8125,7.1343
10.63,-2.8192,7.2036
10.644,-2.8021,7.2126
10.736,-2.8057,7.2753
10.708,-2.7776,7.2563
10.81,-2.783,7.325
10.863,-2.7758,7.3615
10.832,-2.7469,7.3402
10.883,-2.7386,7.3744
10.987,-2.7437,7.4455
11.027,-2.7323,7.4725
11.027,-2.7108,7.4721
11.141,-2.7175,7.5498
11.184,-2.7062,7.5785
11.171,-2.6814,7.5699
11.193,-2.6651,7.5848
11.304,-2.6695,7.6598
11.286,-2.6435,7.6478
11.379,-2.6432,7.7107
11.391,-2.624,7.719
11.54,-2.636,7.82
11.507,-2.6061,7.7974
11.639,-2.6136,7.8874
11.693,-2.6031,7.9238
11.741,-2.5911,7.9564
11.783,-2.5774,7.9846
11.749,-2.5472,7.9615
11.849,-2.546,8.0294
11.964,-2.5476,8.1073
11.935,-2.5182,8.0874
12.063,-2.522,8.1747
12.092,-2.5046,8.194
12.103,-2.4834,8.2012
12.139,-2.4674,8.226
12.268,-2.4698,8.3134
12.351,-2.4625,8.3692
12.376,-2.4436,8.3863
12.434,-2.431,8.4256
12.531,-2.4257,8.4914
12.479,-2.3915,8.4564
12.648,-2.3995,8.571
12.662,-2.3775,8.5803
12.697,-2.3595,8.604
12.794,-2.3528,8.6698
12.787,-2.3267,8.6647
12.844,-2.3122,8.7033
12.933,-2.3032,8.7636
13.018,-2.2932,8.8217
13.061,-2.2754,8.8504
13.187,-2.272,8.9362
13.277,-2.2617,8.9971
13.243,-2.2303,8.9741
13.306,-2.2151,9.0166
13.372,-2.2002,9.0613
13.397,-2.1784,9.0783
13.441,-2.1595,9.108
13.455,-2.1358,9.1177
13.532,-2.1219,9.1702
13.565,-2.1007,9.1921
13.709,-2.0964,9.2896
13.788,-2.0818,9.3432
14.026,-2.0906,9.5043
14.05,-2.067,9.5206
14.111,-2.0486,9.562
14.156,-2.0278,9.5928
14.254,-2.0143,9.6592
14.375,-2.0036,9.7412
14.42,-1.9819,9.7714
14.584,-1.9762,9.883
14.68,-1.9608,9.9477
14.763,-1.9433,10.004
14.852,-1.9263,10.064
14.86,-1.8986,10.07
14.963,-1.8828,10.14
15.03,-1.8621,10.185
15.05,-1.8354,10.198
15.232,-1.8281,10.322
15.365,-1.8143,10.412
15.451,-1.7946,10.471
15.469,-1.7667,10.482
15.505,-1.7408,10.507
15.698,-1.7321,10.638
15.697,-1.7016,10.637
15.899,-1.6927,10.774
16.017,-1.6743,10.854
16.033,-1.6449,10.865
16.071,-1.6177,10.891
16.163,-1.5956,10.952
16.402,-1.5876,11.115
16.501,-1.5652,11.182
16.529,-1.5359,11.201
16.614,-1.5116,11.258
16.821,-1.4978,11.398
16.913,-1.4733,11.461
17.044,-1.4517,11.55
17.078,-1.4216,11.573
17.202,-1.3986,11.657
17.388,-1.38,11.783
17.479,-1.3535,11.845
17.578,-1.327,11.911
17.582,-1.2933,11.914
17.856,-1.2789,12.1
17.82,-1.2418,12.076
18.013,-1.2205,12.207
17.913,-1.179,12.139
18,-1.1499,12.198
18.266,-1.1315,12.378
18.549,-1.1131,12.569
18.721,-1.0872,12.686
18.847,-1.058,12.771
18.871,-1.0228,12.787
19.091,-0.99781,12.937
19.148,-0.96371,12.975
19.323,-0.93511,13.094
19.517,-0.90676,13.226
19.648,-0.87477,13.314
19.71,-0.8394,13.356
19.978,-0.81215,13.538
20.084,-0.77755,13.61
20.181,-0.74224,13.675
20.46,-0.71293,13.865
20.556,-0.67645,13.929
20.707,-0.64135,14.032
20.812,-0.6043,14.103
20.949,-0.56773,14.196
21.258,-0.53497,14.405
21.344,-0.49581,14.464
21.656,-0.46114,14.675
21.691,-0.41988,14.698
21.857,-0.38079,14.811
22.072,-0.34182,14.957
22.308,-0.30228,15.117
22.422,-0.26042,15.194
22.351,-0.21633,15.146
22.479,-0.17406,15.233
22.481,-0.13056,15.234
22.465,-0.086974,15.223
22.592,-0.043734,15.31
22.623,0,15.33
22.525,0.043604,15.264
22.501,0.087115,15.248
22.523,0.1308,15.263
22.452,0.17385,15.214
22.433,0.21712,15.201
22.534,0.26173,15.27
22.5,0.30488,15.247
22.376,0.34652,15.163
22.481,0.39166,15.234
22.366,0.43296,15.156
22.484,0.47876,15.236
22.299,0.51798,15.11
22.363,0.56277,15.154
22.434,0.60799,15.202
22.372,0.64962,15.16
22.376,0.69305,15.163
22.451,0.73882,15.214
22.29,0.77668,15.105
22.391,0.82353,15.173
22.349,0.86526,15.145
22.252,0.90457,15.079
22.202,0.94552,15.045
22.246,0.99046,15.075
22.254,1.0339,15.08
22.318,1.0801,15.124
22.264,1.1206,15.087
22.294,1.1652,15.107
22.258,1.2064,15.083
22.316,1.2528,15.122
22.274,1.2936,15.094
22.247,1.335,15.076
22.255,1.3786,15.081
22.204,1.4184,15.046
22.133,1.4567,14.998
22.154,1.501,15.012
22.149,1.5435,15.009
22.204,1.5903,15.046
22.117,1.6269,14.987
22.197,1.6758,15.042
22.036,1.7062,14.932
22.032,1.7487,14.93
22.12,1.7984,14.99
22.033,1.834,14.93
22.114,1.8835,14.985
21.962,1.9131,14.882
22.066,1.9649,14.953
22.084,2.0093,14.965
22.107,2.0542,14.981
21.898,2.0771,14.839
21.99,2.1284,14.902
21.979,2.1698,14.894
22.064,2.221,14.951
21.903,2.2471,14.842
21.921,2.2915,14.855
21.906,2.3322,14.844
22.019,2.3869,14.921
21.889,2.4152,14.833
21.998,2.4699,14.907
21.887,2.4998,14.832
21.811,2.5333,14.78
21.988,2.5964,14.9
21.809,2.6174,14.778
21.784,2.6566,14.762
21.796,2.7003,14.77
21.778,2.7402,14.757
21.89,2.7967,14.834
21.741,2.8197,14.732
21.778,2.8667,14.758
21.732,2.9028,14.727
21.705,2.9411,14.708
21.843,3.0021,14.802
21.838,3.0437,14.798
21.817,3.083,14.784
21.701,3.1086,14.706
21.708,3.1516,14.71
21.704,3.1931,14.708
21.733,3.2394,14.727
21.72,3.2795,14.718
21.775,3.3299,14.755
21.748,3.3679,14.737
21.656,3.3956,14.675
21.657,3.4377,14.676
21.589,3.4688,14.63
21.63,3.5171,14.657
21.739,3.577,14.731
21.73,3.6175,14.725
21.699,3.6543,14.704
21.53,3.6676,14.59
21.526,3.7086,14.587
21.558,3.7559,14.609
21.671,3.8175,14.685
21.506,3.8301,14.574
21.536,3.877,14.594
21.565,3.9241,14.613
21.512,3.956,14.577
21.502,3.9958,14.57
21.507,4.0384,14.574
21.51,4.0806,14.576
21.449,4.1106,14.535
21.409,4.1444,14.508
21.429,4.1897,14.521
21.558,4.2566,14.609
21.472,4.2813,14.551
21.365,4.3012,14.478
21.441,4.358,14.529
21.431,4.3975,14.523
21.533,4.4601,14.592
21.506,4.4962,14.573
21.411,4.5176,14.509
21.321,4.54,14.448
21.47,4.6132,14.549
21.339,4.6265,14.46
21.286,4.6562,14.424
19.625,4.3309,13.299
14.855,3.3068,10.066
11.952,2.6838,8.0992
9.9461,2.2527,6.7399
8.5482,1.9526,5.7926
7.552,1.7397,5.1175
6.7116,1.5591,4.5481
6.0351,1.4136,4.0896
5.4832,1.295,3.7157
5.0503,1.2025,3.4223
4.6696,1.1209,3.1643
4.3475,1.052,2.9461
4.0305,0.98307,2.7312
3.8029,0.93493,2.577
3.552,0.8801,2.407
3.3717,0.84196,2.2848
3.2101,0.80783,2.1753
3.0463,0.77249,2.0643
2.8914,0.73882,1.9593
2.7649,0.71186,1.8736
2.6329,0.68297,1.7842
2.5301,0.66119,1.7145
2.4265,0.63883,1.6443
2.3457,0.62208,1.5895
2.2463,0.60007,1.5222
2.1736,0.58486,1.4729
2.1074,0.57113,1.4281
2.0373,0.55606,1.3805
1.9599,0.53873,1.3281
1.9108,0.52894,1.2948
1.8448,0.51424,1.2501
1.7853,0.5011,1.2098
10.326,-2.8648,6.9644
10.364,-2.8555,6.9902
10.481,-2.8675,7.069
10.537,-2.8626,7.1069
10.545,-2.8443,7.112
10.603,-2.8397,7.1516
10.625,-2.8252,7.1665
10.666,-2.8155,7.1941
10.747,-2.816,7.2484
10.692,-2.7811,7.2114
10.776,-2.7821,7.2679
10.859,-2.7826,7.3239
10.845,-2.7582,7.3148
10.974,-2.7698,7.4014
10.969,-2.7475,7.3983
11.051,-2.7468,7.4538
11.068,-2.7297,7.4654
11.079,-2.711,7.4727
11.101,-2.6951,7.4876
11.216,-2.7013,7.565
11.255,-2.6889,7.5909
11.313,-2.6811,7.6305
11.382,-2.6754,7.6767
11.391,-2.6556,7.6829
11.464,-2.6506,7.7324
11.44,-2.623,7.716
11.581,-2.633,7.8111
11.589,-2.6125,7.8167
11.668,-2.6077,7.8695
11.735,-2.6001,7.9146
11.772,-2.5857,7.94
11.743,-2.5566,7.9202
11.882,-2.5641,8.0143
11.888,-2.5425,8.0182
11.951,-2.5329,8.0606
12.068,-2.5344,8.1393
12.094,-2.5166,8.157
12.166,-2.5081,8.2054
12.126,-2.4766,8.1789
12.269,-2.4822,8.2754
12.315,-2.4677,8.3062
12.31,-2.443,8.3028
12.394,-2.4358,8.3596
12.425,-2.4179,8.3804
12.519,-2.4121,8.4438
12.562,-2.3962,8.473
12.647,-2.3879,8.5298
12.648,-2.3638,8.5307
12.727,-2.3541,8.5842
12.839,-2.3501,8.6598
12.923,-2.3406,8.7165
12.954,-2.3212,8.7374
12.961,-2.2974,8.7416
13.079,-2.2932,8.8216
13.178,-2.2852,8.8884
13.264,-2.2745,8.9463
13.233,-2.2438,8.9256
13.41,-2.2478,9.0444
13.481,-2.2337,9.0923
13.488,-2.2089,9.097
13.51,-2.1866,9.1123
13.501,-2.159,9.1059
13.6,-2.1486,9.1726
13.615,-2.1248,9.1828
13.741,-2.118,9.2679
13.808,-2.1017,9.313
13.978,-2.1007,9.428
14.011,-2.0787,9.4504
14.143,-2.0709,9.5388
14.151,-2.0449,9.5445
14.35,-2.0461,9.679
14.375,-2.0219,9.6958
14.501,-2.0116,9.7803
14.493,-1.9827,9.7754
14.669,-1.9784,9.8939
14.733,-1.9586,9.9367
14.793,-1.9381,9.9774
14.892,-1.9224,10.044
14.93,-1.8985,10.07
15.045,-1.8842,10.148
15.178,-1.8716,10.237
15.186,-1.8434,10.243
15.22,-1.8181,10.265
15.431,-1.8136,10.408
15.473,-1.7887,10.436
15.546,-1.7673,10.486
15.568,-1.7398,10.5
15.736,-1.7282,10.613
15.845,-1.7096,10.687
15.953,-1.6906,10.76
15.972,-1.6618,10.773
16.159,-1.6501,10.899
16.158,-1.6189,10.898
16.387,-1.6103,11.053
16.369,-1.5769,11.04
16.576,-1.5649,11.18
16.681,-1.5427,11.251
16.768,-1.5185,11.31
16.858,-1.4941,11.37
16.911,-1.4663,11.406
16.983,-1.4398,11.455
17.203,-1.4253,11.603
17.233,-1.3945,11.623
17.362,-1.3715,11.71
17.46,-1.3456,11.776
17.563,-1.3198,11.846
17.775,-1.3014,11.989
17.861,-1.2733,12.047
17.899,-1.2416,12.073
18.024,-1.2154,12.156
18.099,-1.1856,12.207
18.235,-1.1594,12.299
18.348,-1.1312,12.375
18.526,-1.1065,12.495
18.699,-1.0809,12.612
18.855,-1.0535,12.717
19.033,-1.0268,12.838
19.129,-0.99513,12.902
19.263,-0.96498,12.992
19.413,-0.93511,13.094
19.577,-0.90527,13.204
19.757,-0.87553,13.326
19.867,-0.84211,13.4
20.045,-0.81105,13.52
20.197,-0.77828,13.622
20.385,-0.74626,13.749
20.471,-0.70995,13.807
20.717,-0.67857,13.973
20.724,-0.63889,13.978
21.02,-0.60749,14.177
21.176,-0.57121,14.283
21.266,-0.53267,14.344
21.51,-0.49733,14.508
21.617,-0.45814,14.58
21.746,-0.41898,14.667
21.958,-0.38077,14.81
22.3,-0.34372,15.041
22.319,-0.30102,15.054
22.487,-0.25996,15.167
22.547,-0.21721,15.207
22.595,-0.17414,15.24
22.669,-0.13103,15.29
22.655,-0.087299,15.28
22.519,-0.043389,15.189
22.657,0,15.282
22.563,0.043472,15.218
22.633,0.087215,15.265
22.533,0.13025,15.198
22.507,0.17346,15.181
22.632,0.21802,15.264
22.622,0.26152,15.258
22.468,0.30302,15.154
22.543,0.34748,15.205
22.496,0.39009,15.173
22.521,0.43392,15.19
22.436,0.47552,15.133
22.399,0.51789,15.108
22.494,0.56342,15.172
22.38,0.60367,15.094
22.336,0.64552,15.065
22.31,0.68777,15.047
22.476,0.73618,15.159
22.306,0.77361,15.045
22.409,0.82034,15.114
22.39,0.86281,15.102
22.43,0.90754,15.128
22.31,0.94568,15.048
22.441,0.99445,15.136
22.293,1.0309,15.036
22.249,1.0717,15.006
22.403,1.1223,15.11
22.394,1.165,15.104
22.325,1.2044,15.057
22.191,1.24,14.968
22.198,1.2831,14.972
22.246,1.3287,15.004
22.293,1.3745,15.036
22.323,1.4193,15.056
22.308,1.4613,15.046
22.282,1.5026,15.029
22.123,1.5345,14.921
22.144,1.5786,14.936
22.253,1.6293,15.009
22.27,1.6734,15.02
22.186,1.7098,14.964
22.163,1.7508,14.948
22.159,1.7932,14.946
22.079,1.8292,14.891
22.051,1.8694,14.873
22.031,1.9101,14.859
22.103,1.9589,14.908
22.019,1.994,14.851
22.03,2.0374,14.858
22.156,2.0917,14.944
21.969,2.1164,14.817
22.043,2.166,14.867
22.024,2.2066,14.855
22.02,2.2486,14.852
21.937,2.2824,14.796
22.022,2.3337,14.853
22.031,2.3771,14.859
21.959,2.4117,14.811
21.965,2.4546,14.815
21.926,2.4925,14.788
21.894,2.5311,14.767
21.851,2.5682,14.738
22.016,2.63,14.849
21.875,2.6553,14.754
21.879,2.6979,14.757
21.809,2.7314,14.71
21.865,2.7805,14.748
21.797,2.8138,14.702
21.968,2.8782,14.817
21.943,2.9172,14.8
21.751,2.9336,14.671
21.946,3.0022,14.802
21.761,3.0188,14.677
21.822,3.0693,14.718
21.872,3.1185,14.752
21.841,3.1561,14.731
21.841,3.1982,14.731
21.704,3.22,14.639
21.766,3.2711,14.681
21.76,3.3121,14.677
21.746,3.3519,14.667
21.674,3.3826,14.619
21.748,3.436,14.668
21.81,3.4879,14.711
21.702,3.5123,14.637
21.778,3.5667,14.689
21.643,3.5862,14.598
21.587,3.6185,14.56
21.7,3.6793,14.636
21.657,3.7137,14.607
21.752,3.7719,14.671
21.623,3.7913,14.584
21.532,3.8168,14.523
21.559,3.8631,14.541
21.566,3.9058,14.545
21.661,3.9649,14.61
21.627,4.0002,14.587
21.488,4.0159,14.493
21.627,4.0836,14.587
21.551,4.1108,14.536
21.449,4.1327,14.467
21.496,4.1832,14.499
21.454,4.2163,14.47
21.571,4.2809,14.549
21.549,4.3181,14.534
21.411,4.3317,14.441
21.413,4.3733,14.443
21.572,4.4472,14.55
21.427,4.4587,14.452
21.447,4.5043,14.466
21.529,4.5629,14.521
21.458,4.5891,14.473
21.336,4.6042,14.391
21.383,4.6555,14.422
19.628,4.3111,13.238
14.938,3.3099,10.075
11.989,2.6795,8.0861
10.086,2.2736,6.8026
8.6587,1.9686,5.8401
7.5599,1.7333,5.0989
6.7166,1.5529,4.5301
6.0487,1.4102,4.0797
5.5155,1.2965,3.7201
5.0551,1.198,3.4095
4.6908,1.1207,3.1638
4.3593,1.0499,2.9403
4.0711,0.98833,2.7458
3.8188,0.93443,2.5757
3.5723,0.881,2.4094
3.4006,0.84522,2.2936
3.2226,0.80718,2.1736
3.0487,0.7695,2.0563
2.905,0.73881,1.9593
2.7718,0.7103,1.8695
2.6647,0.68799,1.7973
2.5423,0.66127,1.7147
2.4548,0.64324,1.6557
2.3487,0.61996,1.5841
2.2556,0.59974,1.5213
2.1852,0.58524,1.4739
2.11,0.56917,1.4232
2.0357,0.55304,1.373
1.9736,0.53996,1.3311
1.9163,0.52799,1.2925
1.8583,0.51558,1.2534
1.8003,0.50296,1.2143
10.402,-2.8727,6.9834
10.445,-2.8644,7.0119
10.473,-2.8519,7.0306
10.522,-2.8453,7.064
10.583,-2.8415,7.105
10.602,-2.8263,7.1178
10.706,-2.8333,7.1871
10.686,-2.8077,7.1742
10.78,-2.8116,7.2371
10.823,-2.802,7.2656
10.835,-2.7844,7.274
10.897,-2.7794,7.3156
10.888,-2.7561,7.3092
11.014,-2.767,7.394
10.977,-2.7368,7.3696
11.011,-2.724,7.3921
11.111,-2.7275,7.4594
11.152,-2.7162,7.4868
11.248,-2.718,7.5514
11.21,-2.6873,7.5259
11.294,-2.6858,7.5823
11.399,-2.6888,7.6524
11.427,-2.6735,7.6711
11.408,-2.6472,7.6586
11.446,-2.6342,7.6844
11.526,-2.6303,7.7376
11.593,-2.6234,7.7826
11.678,-2.6204,7.8401
11.745,-2.6127,7.8846
11.711,-2.5828,7.8621
11.848,-2.5902,7.9537
11.853,-2.5685,7.9571
11.9,-2.556,7.9889
11.997,-2.5539,8.0542
11.977,-2.5266,8.0405
12.045,-2.5179,8.0866
12.103,-2.5069,8.1255
12.14,-2.4912,8.1502
12.227,-2.4855,8.2084
12.244,-2.4655,8.2199
12.353,-2.4638,8.2929
12.41,-2.4514,8.3314
12.485,-2.4421,8.3813
12.485,-2.4183,8.3818
12.649,-2.4258,8.4918
12.635,-2.3989,8.4823
12.76,-2.3982,8.5664
12.785,-2.3784,8.5834
12.82,-2.3602,8.6063
12.929,-2.3554,8.6795
12.984,-2.3407,8.7168
12.962,-2.3118,8.7017
13.145,-2.3192,8.8245
13.131,-2.2916,8.8155
13.192,-2.2769,8.8561
13.228,-2.2578,8.8807
13.283,-2.2417,8.9174
13.391,-2.2343,8.99
13.513,-2.2286,9.0715
13.577,-2.2132,9.1148
13.481,-2.1717,9.0504
13.49,-2.1472,9.0562
13.596,-2.1381,9.1277
13.639,-2.1187,9.1566
13.738,-2.1077,9.2226
13.847,-2.0978,9.2958
14.105,-2.1099,9.4691
14.08,-2.0791,9.4521
14.175,-2.0661,9.5164
14.264,-2.0516,9.5758
14.409,-2.0449,9.6733
14.419,-2.0186,9.6801
14.583,-2.0137,9.7904
14.585,-1.9859,9.7916
14.65,-1.9667,9.8354
14.787,-1.9567,9.9269
14.863,-1.9382,9.9779
14.868,-1.9104,9.9813
15.057,-1.9058,10.108
15.047,-1.8757,10.102
15.191,-1.8646,10.199
15.19,-1.8352,10.197
15.336,-1.8235,10.296
15.425,-1.8045,10.355
15.533,-1.7873,10.428
15.674,-1.7735,10.523
15.751,-1.752,10.574
15.843,-1.7319,10.636
15.837,-1.7008,10.632
15.947,-1.6821,10.706
16.135,-1.671,10.832
16.268,-1.6535,10.922
16.231,-1.6186,10.896
16.471,-1.611,11.058
16.518,-1.5839,11.089
16.655,-1.5651,11.181
16.733,-1.5403,11.234
16.825,-1.5166,11.296
16.969,-1.497,11.392
17.002,-1.4673,11.414
17.179,-1.4496,11.533
17.197,-1.4181,11.545
17.431,-1.404,11.702
17.398,-1.3679,11.68
17.669,-1.3554,11.862
17.697,-1.3236,11.881
17.849,-1.3008,11.983
17.974,-1.2754,12.066
18.057,-1.2467,12.123
17.983,-1.207,12.073
18.071,-1.1783,12.132
18.234,-1.154,12.241
18.307,-1.1235,12.29
18.782,-1.1166,12.609
18.766,-1.0796,12.598
18.997,-1.0565,12.753
19.116,-1.0265,12.833
19.155,-0.99182,12.859
19.323,-0.96347,12.972
19.548,-0.93721,13.123
19.6,-0.90211,13.158
19.845,-0.87533,13.323
19.945,-0.84152,13.39
20.11,-0.8099,13.501
20.33,-0.77977,13.648
20.467,-0.74578,13.74
20.669,-0.71349,13.876
20.707,-0.6751,13.902
21.018,-0.64492,14.11
21.086,-0.60657,14.156
21.268,-0.57103,14.278
21.516,-0.53643,14.445
21.648,-0.4982,14.533
21.857,-0.46109,14.674
22.018,-0.42226,14.782
22.05,-0.38059,14.803
22.221,-0.34092,14.918
22.401,-0.30071,15.038
22.483,-0.25871,15.094
22.755,-0.21819,15.276
22.752,-0.17453,15.274
22.693,-0.13056,15.235
22.739,-0.087216,15.266
22.543,-0.043233,15.134
22.684,0,15.229
22.611,0.043363,15.18
22.576,0.086592,15.156
22.632,0.13021,15.194
22.49,0.17252,15.098
22.473,0.2155,15.087
22.627,0.26036,15.19
22.556,0.3028,15.143
22.464,0.34465,15.081
22.541,0.38905,15.132
22.626,0.43391,15.19
22.579,0.47631,15.158
22.422,0.516,15.053
22.512,0.56124,15.113
22.459,0.60299,15.077
22.53,0.64811,15.125
22.484,0.68992,15.095
22.479,0.73287,15.091
22.403,0.77334,15.04
22.465,0.81856,15.081
22.339,0.85683,14.997
22.345,0.89989,15.001
22.343,0.94269,15
22.322,0.98461,14.986
22.469,1.0342,15.084
22.286,1.0685,14.961
22.309,1.1124,14.977
22.38,1.1589,15.025
22.231,1.1938,14.925
22.317,1.2412,14.982
22.326,1.2845,14.988
22.349,1.3287,15.004
22.202,1.3625,14.905
22.187,1.4041,14.895
22.256,1.4512,14.942
22.232,1.4923,14.925
22.146,1.5289,14.867
22.273,1.5804,14.953
22.225,1.6197,14.921
22.172,1.6583,14.885
22.314,1.7118,14.981
22.289,1.7526,14.963
22.155,1.7845,14.873
22.213,1.8318,14.912
22.264,1.8787,14.947
22.164,1.9128,14.88
22.162,1.9551,14.878
22.237,2.0043,14.928
22.123,2.0365,14.852
22.011,2.0684,14.777
22.085,2.1177,14.826
22.031,2.1547,14.79
22.179,2.2118,14.89
22.026,2.2388,14.787
22.047,2.2832,14.801
21.995,2.32,14.766
22.122,2.3758,14.851
22.041,2.4093,14.797
22.132,2.4617,14.858
22.112,2.5019,14.845
22.015,2.5332,14.78
21.943,2.5669,14.731
22.062,2.6232,14.811
22.051,2.6642,14.804
22.052,2.7066,14.804
21.923,2.7328,14.718
21.961,2.7797,14.744
21.87,2.8101,14.682
21.819,2.8454,14.648
21.899,2.8978,14.702
21.838,2.9316,14.66
21.826,2.9719,14.653
21.909,3.0252,14.708
21.853,3.0594,14.671
21.82,3.0966,14.649
21.891,3.1487,14.696
21.924,3.1954,14.718
21.776,3.2156,14.619
21.818,3.2637,14.648
21.871,3.3135,14.683
21.849,3.3522,14.668
21.741,3.3773,14.596
21.745,3.4196,14.598
21.881,3.483,14.69
21.707,3.4969,14.573
21.83,3.5586,14.655
21.73,3.5839,14.588
21.753,3.6295,14.604
21.635,3.6512,14.525
21.669,3.6985,14.547
21.719,3.7487,14.581
21.746,3.795,14.599
21.704,3.8293,14.571
21.576,3.8482,14.485
21.748,3.9205,14.6
21.711,3.9555,14.575
21.732,4.001,14.589
21.699,4.0365,14.567
21.678,4.0742,14.553
21.701,4.1201,14.568
21.526,4.1283,14.451
21.687,4.2006,14.559
21.634,4.2318,14.523
21.604,4.2675,14.504
21.627,4.3134,14.519
21.493,4.328,14.429
21.449,4.3601,14.399
21.546,4.4213,14.465
21.449,4.4424,14.399
21.609,4.5171,14.507
21.506,4.5368,14.438
21.488,4.5742,14.426
21.492,4.6162,14.428
21.487,4.6565,14.425
19.835,4.3363,13.316
15.001,3.3083,10.071
12.033,2.6768,8.0781
10.042,2.2532,6.7415
8.6845,1.9653,5.8302
7.6052,1.7356,5.1056
6.7622,1.5562,4.5397
6.1259,1.4215,4.1125
5.565,1.302,3.736
5.0801,1.1983,3.4105
4.7153,1.1213,3.1656
4.3735,1.0484,2.9361
4.093,0.98902,2.7478
3.8362,0.93433,2.5754
3.5991,0.88348,2.4162
3.4084,0.84322,2.2882
3.2375,0.80713,2.1734
3.0706,0.77143,2.0614
2.9096,0.73655,1.9533
2.7852,0.7104,1.8698
2.66,0.68358,1.7858
2.5683,0.66492,1.7242
2.4498,0.63894,1.6446
2.3622,0.62062,1.5858
2.2681,0.60026,1.5227
2.1871,0.58302,1.4683
2.1223,0.56983,1.4248
2.0568,0.55618,1.3808
1.9832,0.54008,1.3314
1.9105,0.52394,1.2826
1.8589,0.51334,1.2479
1.8024,0.50121,1.21
10.471,-2.8784,6.9974
10.517,-2.8709,7.0279
10.587,-2.8698,7.0748
10.594,-2.8515,7.0794
10.626,-2.8398,7.1007
10.626,-2.8194,7.1004
10.746,-2.8308,7.1809
10.783,-2.82,7.2055
10.776,-2.7976,7.2009
10.807,-2.785,7.2217
10.932,-2.7963,7.305
10.984,-2.7887,7.34
11.002,-2.7723,7.3521
11.022,-2.7562,7.3653
11.068,-2.7466,7.3959
11.076,-2.7275,7.4015
11.134,-2.7203,7.4397
11.188,-2.7124,7.4763
11.303,-2.7187,7.5533
11.309,-2.6985,7.5572
11.323,-2.6801,7.566
11.394,-2.6752,7.6136
11.408,-2.6567,7.6229
11.445,-2.6436,7.6481
11.54,-2.6435,7.7114
11.57,-2.6283,7.7317
11.606,-2.6143,7.7558
11.746,-2.6234,7.8492
11.791,-2.6108,7.8788
11.826,-2.596,7.9023
11.84,-2.5765,7.9116
11.918,-2.5708,7.9641
12,-2.5656,8.0188
11.959,-2.534,7.9915
12.089,-2.5385,8.0785
12.165,-2.5311,8.1288
12.151,-2.505,8.1195
12.183,-2.4883,8.1408
12.355,-2.5,8.2563
12.391,-2.4837,8.2804
12.376,-2.4569,8.2699
12.493,-2.4563,8.3482
12.487,-2.4313,8.3443
12.567,-2.423,8.3979
12.626,-2.4102,8.4373
12.764,-2.4122,8.5294
12.82,-2.3982,8.5666
12.878,-2.3845,8.6054
12.911,-2.3659,8.6272
12.953,-2.349,8.6556
13.015,-2.3354,8.6972
13.048,-2.3164,8.719
13.085,-2.2979,8.7435
13.269,-2.3049,8.8665
13.331,-2.2902,8.9081
13.296,-2.2589,8.8847
13.451,-2.2596,8.9885
13.427,-2.2299,8.9723
13.593,-2.2315,9.0832
13.605,-2.2075,9.0911
13.503,-2.1652,9.0231
13.581,-2.1517,9.0751
13.634,-2.1341,9.1106
13.708,-2.1196,9.1603
13.799,-2.1072,9.2206
13.999,-2.1111,9.3547
14.122,-2.1026,9.4365
14.201,-2.0873,9.4896
14.268,-2.07,9.5344
14.378,-2.0585,9.6079
14.434,-2.0389,9.645
14.45,-2.0135,9.6556
14.648,-2.0132,9.7882
14.693,-1.9913,9.8181
14.719,-1.9668,9.8358
14.767,-1.945,9.8679
14.882,-1.9318,9.9447
14.924,-1.9087,9.9723
15.012,-1.8913,10.031
15.113,-1.8752,10.099
15.238,-1.8616,10.182
15.28,-1.8376,10.21
15.354,-1.8172,10.26
15.463,-1.8005,10.333
15.642,-1.7915,10.452
15.716,-1.77,10.502
15.802,-1.7496,10.56
15.883,-1.7282,10.614
16.026,-1.7132,10.709
16.144,-1.6949,10.788
16.191,-1.669,10.82
16.308,-1.6499,10.897
16.448,-1.6326,10.991
16.471,-1.6035,11.007
16.505,-1.5753,11.029
16.752,-1.5669,11.194
16.707,-1.5308,11.164
16.924,-1.5184,11.309
17.066,-1.4985,11.404
17.084,-1.4676,11.416
17.246,-1.4485,11.524
17.244,-1.4154,11.523
17.429,-1.3974,11.647
17.483,-1.3683,11.683
17.756,-1.3558,11.865
17.776,-1.3233,11.878
17.982,-1.3043,12.016
17.974,-1.2695,12.011
18.026,-1.2387,12.045
18.121,-1.2107,12.109
18.276,-1.1862,12.213
18.426,-1.1607,12.313
18.737,-1.1445,12.52
18.861,-1.1161,12.604
18.951,-1.0853,12.664
19.136,-1.0593,12.787
19.257,-1.0292,12.868
19.359,-0.99777,12.936
19.562,-0.9709,13.072
19.606,-0.93564,13.101
19.764,-0.90547,13.207
19.969,-0.87673,13.344
20.005,-0.84012,13.368
20.254,-0.81191,13.534
20.347,-0.7768,13.596
20.61,-0.7475,13.772
20.683,-0.71067,13.821
20.9,-0.67823,13.966
20.971,-0.64049,14.013
21.218,-0.60756,14.179
21.423,-0.57252,14.315
21.539,-0.53451,14.393
21.759,-0.49843,14.54
21.84,-0.45859,14.594
22.075,-0.42138,14.751
22.138,-0.38034,14.794
22.497,-0.34356,15.033
22.549,-0.30131,15.068
22.619,-0.25906,15.114
22.64,-0.21608,15.128
22.775,-0.1739,15.219
22.729,-0.13016,15.188
22.657,-0.086499,15.14
22.628,-0.043194,15.121
22.685,0,15.159
22.649,0.043234,15.135
22.626,0.086382,15.119
22.726,0.13014,15.186
22.692,0.17327,15.164
22.69,0.21656,15.162
22.59,0.25874,15.096
22.601,0.302,15.102
22.53,0.34405,15.055
22.623,0.38867,15.117
22.49,0.4293,15.028
22.679,0.47622,15.155
22.666,0.51921,15.146
22.617,0.56126,15.114
22.533,0.60219,15.057
22.539,0.64537,15.061
22.598,0.6902,15.101
22.463,0.72894,15.01
22.413,0.7701,14.977
22.512,0.81649,15.043
22.42,0.85596,14.982
22.413,0.89845,14.977
22.486,0.94432,15.026
22.493,0.98755,15.031
22.494,1.0305,15.031
22.529,1.0751,15.054
22.453,1.1144,15.004
22.478,1.1585,15.021
22.347,1.1944,14.933
22.476,1.2442,15.019
22.43,1.2845,14.988
22.383,1.3245,14.957
22.375,1.3668,14.952
22.375,1.4095,14.952
22.345,1.4503,14.932
22.288,1.4891,14.894
22.232,1.5278,14.856
22.313,1.5759,14.91
22.339,1.6204,14.927
22.259,1.6571,14.874
22.285,1.7016,14.892
22.351,1.7493,14.936
22.287,1.7869,14.893
22.181,1.8207,14.822
22.308,1.8736,14.907
22.171,1.9045,14.815
22.3,1.9581,14.902
22.1,1.9828,14.768
22.227,2.0366,14.853
22.252,2.0814,14.87
22.091,2.1085,14.762
22.226,2.1638,14.852
22.144,2.198,14.797
22.05,2.2308,14.734
22.107,2.2788,14.773
22.151,2.3256,14.802
22.095,2.3619,14.765
22.198,2.4153,14.833
21.986,2.4342,14.692
22.106,2.4896,14.772
22.129,2.5345,14.787
22.131,2.577,14.789
21.971,2.6003,14.682
22.129,2.6613,14.787
21.913,2.6771,14.643
21.917,2.7194,14.646
21.968,2.7677,14.68
21.986,2.8119,14.692
21.877,2.8398,14.619
21.895,2.8839,14.631
21.903,2.9267,14.636
22.017,2.984,14.712
21.961,3.0184,14.675
21.952,3.059,14.669
21.895,3.0929,14.631
21.862,3.13,14.609
21.909,3.1784,14.64
21.989,3.232,14.694
21.961,3.2698,14.675
21.837,3.2932,14.592
21.867,3.3393,14.612
21.813,3.3728,14.576
21.796,3.4116,14.564
21.748,3.4458,14.533
21.727,3.4839,14.519
21.858,3.5466,14.606
21.788,3.5769,14.559
21.705,3.6047,14.504
21.847,3.6699,14.599
21.817,3.7065,14.579
21.743,3.7354,14.529
21.799,3.7867,14.567
21.782,3.8254,14.556
21.837,3.8766,14.592
21.663,3.8871,14.476
21.679,3.9315,14.487
21.609,3.9599,14.44
21.714,4.0205,14.51
21.657,4.0513,14.472
21.759,4.112,14.54
21.676,4.1377,14.484
21.599,4.1642,14.433
21.67,4.2193,14.48
21.613,4.2496,14.443
21.606,4.2894,14.438
21.647,4.3387,14.465
21.598,4.3701,14.432
21.544,4.4003,14.396
21.678,4.4692,14.486
21.53,4.4797,14.387
21.485,4.5113,14.357
21.535,4.5631,14.391
21.499,4.5965,14.366
21.519,4.6417,14.379
19.904,4.3315,13.301
15.099,3.3146,10.09
12.128,2.6856,8.1044
10.129,2.2621,6.7682
8.7061,1.961,5.8177
7.6529,1.7384,5.1139
6.7686,1.5505,4.5229
6.1052,1.4102,4.0797
5.5818,1.2999,3.7299
5.1166,1.2013,3.4191
4.7284,1.1192,3.1596
4.3787,1.0448,2.926
4.0806,0.98147,2.7268
3.8577,0.93521,2.5778
3.6324,0.88754,2.4273
3.435,0.84585,2.2953
3.249,0.80627,2.1711
3.0771,0.76947,2.0562
2.9353,0.73962,1.9615
2.8058,0.71235,1.8749
2.6683,0.68253,1.783
2.5731,0.6631,1.7194
2.4618,0.6391,1.645
2.361,0.61745,1.5777
2.2912,0.60357,1.5311
2.2028,0.58447,1.4719
2.1176,0.56592,1.415
2.0479,0.55121,1.3685
1.9929,0.5402,1.3317
1.9282,0.52633,1.2884
1.8618,0.51178,1.2441
1.8174,0.50305,1.2145
10.528,-2.8806,7.0026
10.536,-2.8629,7.0082
10.592,-2.8578,7.0452
10.613,-2.8432,7.0589
10.636,-2.8294,7.0748
10.71,-2.8286,7.1237
10.722,-2.8115,7.132
10.779,-2.8059,7.1695
10.83,-2.7985,7.2032
10.945,-2.8074,7.2798
10.931,-2.7832,7.2707
11.022,-2.7855,7.3316
11.033,-2.7673,7.3388
11.087,-2.7598,7.3748
11.101,-2.7422,7.3841
11.224,-2.7511,7.4656
11.162,-2.7148,7.4245
11.27,-2.7196,7.4963
11.328,-2.7121,7.535
11.354,-2.6966,7.5519
11.46,-2.7001,7.6227
11.419,-2.6688,7.5956
11.533,-2.6735,7.6712
11.599,-2.6668,7.7154
11.582,-2.6409,7.704
11.666,-2.6378,7.7596
11.759,-2.6366,7.8217
11.715,-2.6044,7.7923
11.831,-2.6078,7.8697
11.916,-2.6037,7.9258
11.937,-2.5857,7.94
11.914,-2.5581,7.9248
12.062,-2.5669,8.0229
12.02,-2.5351,7.9951
12.095,-2.5279,8.0447
12.227,-2.5324,8.1331
12.265,-2.5169,8.1581
12.313,-2.5033,8.1898
12.361,-2.4896,8.2219
12.36,-2.466,8.2213
12.511,-2.4723,8.3218
12.486,-2.4435,8.3047
12.549,-2.432,8.3467
12.69,-2.4353,8.4407
12.746,-2.4219,8.4783
12.727,-2.394,8.465
12.832,-2.3895,8.5355
12.932,-2.3834,8.6016
12.885,-2.3504,8.5707
12.972,-2.3416,8.6286
13.076,-2.3355,8.6974
13.106,-2.316,8.7175
13.215,-2.31,8.7896
13.333,-2.3054,8.8684
13.3,-2.2743,8.8462
13.426,-2.2705,8.9304
13.452,-2.2493,8.9477
13.503,-2.2321,8.9814
13.563,-2.2163,9.0212
13.581,-2.1935,9.0335
13.594,-2.1697,9.042
13.631,-2.1498,9.0669
13.761,-2.1441,9.1534
13.785,-2.1216,9.1689
13.842,-2.1041,9.207
14.069,-2.1118,9.3577
14.141,-2.0958,9.4057
14.267,-2.0873,9.4894
14.268,-2.0604,9.4901
14.441,-2.058,9.6057
14.55,-2.0458,9.6779
14.606,-2.026,9.7154
14.712,-2.0128,9.786
14.665,-1.9783,9.7541
14.846,-1.9746,9.8747
14.851,-1.947,9.8781
15.02,-1.9407,9.9904
15.023,-1.9125,9.9926
15.12,-1.8961,10.057
15.175,-1.8742,10.093
15.308,-1.8615,10.182
15.341,-1.8364,10.204
15.5,-1.826,10.31
15.563,-1.8038,10.352
15.666,-1.786,10.42
15.801,-1.7714,10.51
15.803,-1.7416,10.511
16.01,-1.734,10.649
16.034,-1.7061,10.665
16.187,-1.6916,10.767
16.272,-1.6696,10.823
16.425,-1.6541,10.925
16.463,-1.6266,10.95
16.616,-1.6102,11.052
16.679,-1.5846,11.094
16.697,-1.5546,11.106
16.784,-1.5308,11.164
16.883,-1.5078,11.23
17.061,-1.4912,11.348
17.195,-1.4703,11.437
17.247,-1.4419,11.472
17.482,-1.4283,11.628
17.545,-1.4002,11.67
17.617,-1.3725,11.718
17.799,-1.3528,11.839
17.807,-1.3196,11.844
18.001,-1.2998,11.974
18.151,-1.2761,12.073
18.114,-1.239,12.048
18.184,-1.2093,12.095
18.25,-1.179,12.139
18.384,-1.1528,12.228
18.73,-1.1389,12.458
18.812,-1.1081,12.513
18.951,-1.0803,12.605
19.218,-1.059,12.783
19.223,-1.0227,12.786
19.344,-0.99242,12.867
19.628,-0.96966,13.055
19.7,-0.93578,13.103
19.843,-0.90489,13.199
19.933,-0.8711,13.258
20.066,-0.8388,13.347
20.4,-0.814,13.569
20.474,-0.77806,13.618
20.532,-0.74124,13.657
20.83,-0.71242,13.855
20.87,-0.67413,13.882
21.129,-0.64235,14.054
21.289,-0.60678,14.161
21.411,-0.56956,14.241
21.653,-0.53486,14.403
21.787,-0.49677,14.492
21.947,-0.45871,14.598
22.079,-0.41953,14.686
22.281,-0.38103,14.821
22.452,-0.34129,14.934
22.807,-0.30335,15.17
22.601,-0.25766,15.033
22.889,-0.21746,15.225
22.698,-0.17251,15.098
22.771,-0.1298,15.146
22.773,-0.086543,15.148
22.684,-0.043102,15.088
22.756,0,15.136
22.722,0.043173,15.113
22.802,0.086653,15.167
22.807,0.13001,15.17
22.767,0.17304,15.144
22.645,0.21514,15.062
22.778,0.25968,15.151
22.776,0.30294,15.15
22.757,0.34593,15.137
22.709,0.38834,15.105
22.659,0.43054,15.072
22.664,0.47371,15.075
22.654,0.51655,15.069
22.551,0.55704,15
22.525,0.59919,14.982
22.495,0.64113,14.962
22.68,0.68952,15.086
22.634,0.7311,15.055
22.58,0.77228,15.019
22.563,0.81458,15.008
22.59,0.85845,15.026
22.559,0.90017,15.005
22.618,0.94548,15.044
22.535,0.98484,14.989
22.541,1.0279,14.993
22.368,1.0625,14.878
22.371,1.1052,14.88
22.484,1.1535,14.955
22.462,1.1951,14.941
22.374,1.2329,14.882
22.389,1.2763,14.892
22.511,1.326,14.974
22.511,1.3688,14.973
22.302,1.3984,14.834
22.438,1.4496,14.925
22.358,1.4869,14.871
22.305,1.5257,14.836
22.35,1.5713,14.866
22.358,1.6144,14.872
22.41,1.6607,14.906
22.356,1.6992,14.87
22.384,1.7438,14.889
22.403,1.7878,14.901
22.287,1.821,14.824
22.281,1.8628,14.821
22.355,1.9115,14.87
22.155,1.9365,14.737
22.147,1.9778,14.731
22.175,2.0225,14.75
22.219,2.0687,14.779
22.214,2.1104,14.775
22.151,2.1465,14.734
22.157,2.1893,14.738
22.256,2.2413,14.803
22.256,2.2836,14.804
22.232,2.3234,14.788
22.105,2.3521,14.703
22.244,2.4092,14.796
22.228,2.4496,14.785
22.071,2.4743,14.681
22.122,2.522,14.714
22.145,2.5667,14.73
22.135,2.6076,14.723
22.09,2.6443,14.693
22.105,2.6881,14.703
22.164,2.7373,14.742
21.979,2.7564,14.62
22.025,2.8039,14.65
21.965,2.838,14.61
22.051,2.8911,14.667
21.927,2.9164,14.584
21.968,2.9637,14.612
21.915,2.9981,14.577
21.883,3.0353,14.555
22.011,3.0949,14.641
22,3.1351,14.633
22.056,3.185,14.67
21.932,3.2088,14.588
21.844,3.2375,14.53
21.903,3.2878,14.569
21.825,3.3176,14.517
21.983,3.3834,14.622
21.987,3.4258,14.625
21.848,3.4456,14.532
21.815,3.4818,14.51
21.87,3.5321,14.547
21.941,3.5853,14.594
21.844,3.611,14.529
21.812,3.6471,14.508
21.74,3.6764,14.46
21.807,3.7291,14.505
21.894,3.7857,14.563
21.788,3.8087,14.492
21.691,3.8331,14.428
21.858,3.904,14.539
21.809,3.9367,14.506
21.723,3.9625,14.449
21.707,4.0007,14.438
21.82,4.0631,14.513
21.787,4.0983,14.491
21.613,4.1066,14.376
21.744,4.1729,14.463
21.612,4.1886,14.375
21.749,4.2565,14.466
21.576,4.2636,14.351
21.693,4.3279,14.429
21.597,4.35,14.366
21.627,4.397,14.385
21.705,4.4541,14.437
21.674,4.4889,14.417
21.512,4.4963,14.309
21.644,4.5651,14.397
21.508,4.5772,14.306
21.523,4.6212,14.316
20.002,4.3326,13.304
15.064,3.2917,10.02
12.196,2.6881,8.1121
10.226,2.2733,6.8017
8.7096,1.9528,5.7932
7.6433,1.7282,5.084
6.8567,1.5634,4.5607
6.1604,1.4163,4.0976
5.5904,1.2959,3.7184
5.1318,1.1994,3.4134
4.7406,1.1169,3.1532
4.423,1.0505,2.942
4.1367,0.99038,2.7515
3.8538,0.92998,2.5634
3.6307,0.88303,2.415
3.4264,0.83986,2.2791
3.2704,0.80783,2.1753
3.0851,0.76793,2.0521
2.9374,0.73675,1.9538
2.8265,0.7143,1.8801
2.6879,0.68439,1.7879
2.5829,0.66254,1.718
2.4746,0.63946,1.646
2.3786,0.61917,1.5821
2.3046,0.60429,1.5329
2.2176,0.5857,1.475
2.138,0.56874,1.4221
2.065,0.55323,1.3735
2.005,0.54097,1.3336
1.9312,0.52473,1.2845
1.8778,0.51378,1.249
1.8292,0.50398,1.2167
10.58,-2.8816,7.0051
10.609,-2.8694,7.0241
10.676,-2.8673,7.0685
10.658,-2.8422,7.0563
10.72,-2.8385,7.0975
10.761,-2.829,7.1247
10.825,-2.8253,7.1669
10.822,-2.8041,7.1649
10.878,-2.7981,7.2024
10.955,-2.7972,7.2533
11.024,-2.7939,7.2988
11.062,-2.7828,7.3244
11.036,-2.7554,7.3072
11.125,-2.7564,7.3657
11.175,-2.7477,7.3989
11.237,-2.7417,7.4401
11.265,-2.7272,7.4586
11.323,-2.7199,7.4971
11.418,-2.721,7.5595
11.43,-2.7023,7.5678
11.45,-2.6853,7.5808
11.525,-2.6812,7.6308
11.565,-2.6685,7.6569
11.609,-2.6568,7.6862
11.656,-2.6454,7.7172
11.697,-2.6326,7.7444
11.802,-2.6341,7.8144
11.828,-2.6174,7.8313
11.807,-2.5904,7.8172
11.931,-2.595,7.8992
12.013,-2.5901,7.9535
12.047,-2.5748,7.9764
12.068,-2.5563,7.99
12.086,-2.5373,8.0019
12.192,-2.5365,8.072
12.196,-2.5143,8.0747
12.33,-2.5185,8.1634
12.324,-2.494,8.1595
12.424,-2.4908,8.2258
12.46,-2.4745,8.2497
12.466,-2.452,8.2534
12.594,-2.4534,8.3383
12.635,-2.4375,8.3655
12.739,-2.4336,8.4346
12.772,-2.4157,8.4563
12.842,-2.4046,8.5025
12.933,-2.3972,8.5629
12.94,-2.3741,8.5677
12.959,-2.353,8.5801
13.078,-2.3499,8.659
13.103,-2.3297,8.6758
13.252,-2.3309,8.7739
13.206,-2.2979,8.7436
13.286,-2.2867,8.7964
13.454,-2.2903,8.9082
13.517,-2.2753,8.9495
13.512,-2.249,8.9465
13.581,-2.2348,8.9922
13.654,-2.2209,9.04
13.573,-2.1821,8.9867
13.703,-2.1771,9.0728
13.698,-2.1503,9.0692
13.845,-2.1473,9.1668
13.939,-2.1355,9.2289
13.918,-2.106,9.2154
14.144,-2.1133,9.3645
14.29,-2.1081,9.4611
14.276,-2.0791,9.452
14.456,-2.078,9.5716
14.451,-2.0499,9.5679
14.559,-2.0378,9.6398
14.63,-2.02,9.6865
14.681,-1.9993,9.7206
14.823,-1.9906,9.8145
14.92,-1.9753,9.8782
15.005,-1.9582,9.9348
15.091,-1.9409,9.9919
15.159,-1.921,10.037
15.158,-1.8922,10.036
15.351,-1.8872,10.164
15.352,-1.8583,10.164
15.462,-1.8424,10.237
15.636,-1.8336,10.353
15.66,-1.8068,10.368
15.689,-1.7804,10.388
15.863,-1.7702,10.503
15.933,-1.7478,10.549
16.003,-1.7253,10.595
16.17,-1.7127,10.706
16.29,-1.6946,10.785
16.322,-1.667,10.807
16.398,-1.6438,10.857
16.518,-1.6246,10.937
16.592,-1.6005,10.986
16.704,-1.5797,11.06
16.806,-1.5575,11.127
16.874,-1.5319,11.172
16.971,-1.5086,11.236
17.234,-1.4994,11.41
